17.693		13.826		-0.000		
19.858		12.564		-0.055		
21.106		10.363		-0.147		
22.366		5.656		-0.260		
22.367		8.165		-0.250		
19.852		1.261		-0.081		
17.690		-0.000		0.000		
21.104		3.459		-0.170		
2.530		-0.005		0.047		
15.160		-0.002		0.055		
0.000		-0.000		0.000		
-2.163		1.262		-0.054		
-3.415		3.463		-0.091		
-4.677		8.168		-0.104		
-4.678		5.662		-0.113		
-2.159		12.565		-0.043		
10.109		13.837		-0.058		
7.585		13.838		-0.078		
5.062		13.833		-0.064		
2.535		13.828		-0.041		
15.163		13.830		0.006		
0.007		13.825		-0.030		
-3.412		10.366		-0.074		
12.635		13.835		-0.017		
10.108		-0.010		0.103		
7.583		-0.012		0.095		
5.058		-0.011		0.078		
12.631		-0.009		0.092		
16.397		10.553		-0.025		
16.395		12.025		-0.012		
17.697		12.719		-0.017		
17.648		8.369		-0.062		
17.649		9.825		-0.052		
18.926		10.548		-0.074		
18.892		12.022		-0.048		
17.647		4.001		-0.051		
17.647		5.456		-0.062		
18.905		6.183		-0.106		
18.905		7.641		-0.104		
20.167		8.373		-0.145		
20.145		9.814		-0.124		
18.924		3.277		-0.083		
20.143		4.008		-0.139		
20.167		5.449		-0.153		
21.411		6.214		-0.211		
21.411		7.608		-0.207		
17.693		1.107		-0.016		
18.887		1.804		-0.060		
5.076		5.455		-0.028		
5.074		3.990		-0.006		
3.814		3.268		-0.001		
3.812		1.794		0.028		
11.362		3.269		0.040		
2.533		1.101		0.027		
3.820		7.642		-0.056		
3.820		6.182		-0.044		
11.358		7.644		-0.019		
2.561		5.456		-0.041		
11.357		6.182		-0.006		
2.560		3.994		-0.022		
10.089		5.460		-0.456		
16.395		3.274		-0.011		
1.297		3.272		-0.025		
10.101		3.994		0.019		
16.390		1.801		0.007		
1.300		1.800		-0.003		
8.845		3.268		0.031		
15.158		1.104		0.040		
-0.002		1.107		-0.014		
11.367		12.034		-0.034		
2.561		9.830		-0.059		
11.365		10.558		-0.029		
2.561		8.367		-0.059		
10.104		9.833		-0.045		
16.386		7.643		-0.037		
1.307		7.641		-0.059		
10.092		8.373		-0.391		
16.386		6.184		-0.034		
1.307		6.182		-0.053		
15.132		5.458		-0.008		
0.046		5.456		-0.058		
8.817		7.658		-0.969		
8.815		6.187		-0.952		
15.133		3.995		0.005		
0.044		3.999		-0.048		
7.573		5.458		-0.473		
13.878		3.271		0.030		
-1.233		3.277		-0.059		
7.590		3.994		0.005		
13.879		1.797		0.050		
-1.198		1.805		-0.043		
10.109		12.731		-0.053		
1.298		10.551		-0.055		
8.848		12.036		-0.064		
15.135		9.831		-0.016		
0.046		9.824		-0.060		
8.847		10.558		-0.057		
15.133		8.368		-0.018		
0.045		8.369		-0.064		
7.592		9.831		-0.066		
13.873		7.643		-0.008		
-1.213		7.642		-0.073		
7.574		8.375		-0.509		
13.872		6.184		0.001		
-1.212		6.184		-0.073		
6.335		7.644		-0.056		
12.616		5.456		0.012		
-2.475		5.453		-0.086		
6.335		6.180		-0.039		
12.617		3.993		0.028		
-2.454		4.011		-0.081		
7.587		12.731		-0.074		
13.880		10.556		-0.013		
-1.232		10.548		-0.060		
6.330		12.033		-0.071		
12.619		9.834		-0.018		
-2.451		9.816		-0.071		
6.331		10.556		-0.068		
12.617		8.371		-0.012		
-2.475		8.375		-0.080		
5.076		9.833		-0.066		
-3.720		7.612		-0.096		
5.077		8.368		-0.059		
-3.721		6.217		-0.100		
5.064		12.726		-0.066		
3.814		12.028		-0.059		
3.816		10.554		-0.062		
2.536		12.721		-0.048		
1.303		12.024		-0.047		
6.329		3.267		0.016		
15.161		12.723		-0.002		
0.002		12.718		-0.040		
13.883		12.030		-0.009		
-1.194		12.022		-0.047		
12.633		12.728		-0.018		
6.327		1.791		0.048		
8.845		1.791		0.062		
11.364		1.793		0.067		
10.107		1.096		0.080		
7.585		1.095		0.070		
5.060		1.095		0.054		
12.630		1.099		0.074		
